NCOLS 75 
NROWS 32 
XLLCORNER -5.408333333 
YLLCORNER 39.25 
CELLSIZE 0.0333333333333333 
NODATA_value -3.4e+38 
1498.312500000000000 1701.125 1825.3125 1739.0625 1756.0625 1659.6875 1607.375 1809.5625 1874.625 1691.3125 1511.5 1207 1160.125 1396.125 1624.125 1696.6875 1310.125 1108 1042.5625 677.4375 596.5 583.9375 603.375 704.875 783.6875 740 862.4375 899.4375 835.25 790.125 747.5625 751.75 672.75 577.8125 515.0625 468.6875 528.0625 537.5 554.6875 575.75 600.25 644.9375 635.375 596.4375 623 643.375 651.0625 676.875 666.3125 660 621.5 604.9375 577.5625 561.5 577.75 590.375 532.8125 548.4375 596.5 664.5 727.625 769.0625 783.25 762.625 803.875 793.375 719.625 790.875 795.0625 803.1875 799.25 770.1875 719.3125 664.5625 626.1875
1823.125000000000000 1889.9375 2145.0625 2108.375 2040.0625 1888.875 1965.8125 1740.5 1269.1875 978.625 1083.8125 771.875 761.9375 1212.0625 1195.5625 1137 659.9375 570.75 515.9375 465.625 510.0625 558.1875 620.75 592.4375 616.9375 679.9375 777.125 913.5 777.8125 657 617.8125 637.3125 561.5625 491.0625 464.3125 496.125 537.8125 558.8125 591.875 595.625 636.25 638.375 614.8125 581.5 609.9375 638.9375 677.375 680.875 661.8125 638.6875 611.875 599.0625 619.1875 606.0625 621.25 559.6875 555.25 636.125 676.25 721.0625 751 752 755.875 684 750.1875 680.9375 734.5 754.0625 780.25 775.25 764.125 745.8125 667 630.5 727.875
1470.125000000000000 1261.625 1591.5625 1900.8125 1632.875 1400.125 1650 1271.5 929.3125 716.5625 732.25 592.75 1069.875 1114.75 706 605.875 446.5 422.0625 434.6875 495.4375 569.0625 664.3125 654 641.75 731.8125 810.125 762.9375 738.375 667.3125 589.0625 520.625 530.9375 487.625 457.1875 484.5 539.25 553.75 582.625 610.125 639.75 651.8125 621.875 600.1875 566.9375 622.1875 651.0625 678.3125 662.875 646.5 637.1875 616.25 623.6875 622.625 605.0625 568 522 584.5 683.6875 635.875 629.9375 653.6875 660.6875 642.875 677.75 682.4375 683.6875 741.9375 767.8125 752.0625 710.1875 726.3125 702.9375 594.8125 675.1875 746.1875
982.625000000000000 764.25 1201.875 1110.375 1140.25 946.6875 1219.25 1009.0625 722.875 533.4375 551.5625 547.1875 583.5625 538 437.0625 402.25 404.4375 478.125 568.5625 541.375 547.75 570.1875 619.6875 784.5 844.0625 768.8125 840.5 734.75 560.4375 487.375 473.375 462.1875 449.1875 482.9375 519.125 546.5 583.875 608.6875 638.375 638.875 634.9375 609 583.6875 558.875 614.6875 648.5 668.3125 639.5625 623.125 612.0625 620.125 629.0625 609.9375 609.625 551.8125 529 643.875 616.8125 546.375 626.5625 680.125 684.25 684.625 721.75 745.0625 783.5625 757.4375 756.25 705.5 651.0625 611.875 600.5625 591.4375 670.5625 753.0625
623.625000000000000 476 510.0625 568.1875 624.6875 607.3125 565.25 512.1875 515 427.25 405.1875 386.3125 384.0625 389.5 403.4375 444.5 475.125 595.875 728.3125 855.125 909.3125 789.125 728.8125 700.625 648.5625 629.3125 577.5 528.4375 466.8125 449.875 441.1875 454.6875 491.25 523.25 556.625 566.5625 595.9375 629.5625 638.3125 613.6875 618.4375 598.1875 563.75 571.125 626.25 658.875 638.125 615.1875 600.625 598.25 654.25 646.4375 614.0625 576.125 518.9375 552.25 575.875 541.1875 605.3125 681.5 753.4375 695.5 751.125 767.9375 762.4375 744.875 725.1875 682 641.25 590.6875 590.1875 618.3125 682.1875 716.5 781.4375
379.000000000000000 338.375 332.3125 336 348.1875 345.8125 334.125 365.375 416 418.875 481.6875 477.3125 463.8125 531.5 539.25 585 599.875 606.3125 730.0625 958.4375 1071.0625 790.3125 650.125 609.6875 514 475.8125 460.5 446.8125 432.6875 451.25 474.375 503.5 521.25 546.0625 573.9375 605.375 619.3125 612.25 625.5625 599.1875 590.5625 559.1875 558.125 603.6875 638.75 628.5 605.625 584.5 571.9375 610.3125 660.0625 652.875 618.4375 568.3125 501.625 529.5625 568.9375 614.875 669.6875 748.8125 768.6875 737.25 744.9375 753.5625 739.5625 686.8125 668.0625 599.0625 566.375 583.875 614.5625 651.6875 677.1875 715.875 785.9375
292.062500000000000 301.4375 314.8125 314.875 325.1875 336.75 342.1875 370.9375 396.375 485.5 534.9375 521.4375 547.0625 548.875 521.8125 518.5 532.6875 578.0625 634.0625 735.4375 630 560.4375 473.3125 463.4375 426.5625 443.4375 435.4375 424.5 454.4375 479.4375 495.5 522.875 539.3125 556.875 572.75 592.625 593 590.125 594.5 575.9375 566.375 537.75 601 631.8125 622.25 591.3125 556.0625 562 566.4375 632.25 625.75 607.75 603.8125 513.0625 528.3125 590.6875 609.4375 629.1875 648.5 683.8125 733.3125 751.25 705.9375 668.125 663.5 621.0625 580.5625 564.1875 607.75 628.5 637.5625 695.25 728.4375 746.3125 759.1875
286.937500000000000 288.125 292.625 303.1875 322.625 360.3125 362.4375 368.5625 411.3125 409.625 429.375 414.125 423.5625 464.375 443.5625 448.1875 529.6875 574.3125 577.125 500.8125 469.0625 440.75 422.8125 415.375 413.625 419.3125 427.5 437.125 451.5625 456.3125 473.3125 491.375 516.25 539.4375 572.6875 586.375 571.6875 564.3125 563.125 554.3125 544.1875 535.8125 590.3125 613.125 585.1875 547.3125 522.5 540.4375 567.5 618 601.25 571.75 556.375 489.125 524.75 528.75 528.875 546.0625 567.1875 606.4375 622.5 612.4375 607.1875 578.125 560.1875 557.3125 604 638.875 670.3125 696.875 701.3125 694.625 776.375 815.1875 807.9375
288.750000000000000 293.125 299 303 311.375 338.5 358.875 368.75 369.4375 376.875 380.3125 386.5625 400.1875 418.25 469.625 520.25 568.4375 538.875 460.6875 418.9375 416.9375 416.125 399.8125 416.5625 444.1875 446.6875 455.25 464.5625 473.1875 486.6875 501.5625 504 525.125 555.375 571.1875 577.5 565.5 545.8125 559.375 538.0625 526.1875 509.25 544.5625 568.375 549.0625 522.5 509.5 514.875 584.5 608 559.9375 519.625 491.0625 496.4375 530.9375 552.4375 573.4375 561.375 559.1875 570.6875 560 568.375 562.5 578.5 618.125 627.625 666.875 697.4375 710.25 790.5 765.0625 742.8125 722.25 770.4375 816.375
285.750000000000000 291.125 298.4375 308.5 315.8125 322.125 328.25 337.875 349.625 365.1875 379.375 391.25 417.3125 458.75 528.125 540.125 472.875 404.75 390.125 386.5 392.625 418.8125 443.5625 455.875 456.9375 480.75 472.8125 482.5625 500.6875 523.25 532 540.75 550.4375 547.9375 542.875 537.4375 547.5625 520.75 520 517.5625 509.0625 496.375 520.6875 530.3125 523.25 550.375 496.5 513.625 588.0625 570.3125 493.1875 487.125 537.25 567.625 599.625 617.875 671.625 697.375 681.8125 702 675.125 711 659.375 652.75 683.375 706.0625 715.625 741.3125 760.875 802 809.4375 814.4375 792.125 797.5 840.5
286.562500000000000 295.3125 300.9375 311.375 322.875 327.9375 332 337.5 344.1875 362.875 382 399.125 417.6875 447.3125 435.25 394 377.375 370.4375 370.75 374.5625 380.875 381.1875 396.6875 435.8125 456.8125 480.75 513.0625 527.0625 552.3125 557.1875 563.0625 562.5 563.125 534.6875 508.625 498.3125 507.6875 507.875 481.625 491.875 486.375 516.3125 521.875 499.9375 491.75 496.25 480.9375 478.4375 490.375 478.3125 494.75 536 565.0625 598.6875 626.25 671.875 702.125 730.4375 737.25 743.375 740.875 748.125 737.8125 746.25 730.625 768.125 785.5625 785.375 795.5 795.25 795.875 797.1875 789.0625 808.0625 829.3125
288.562500000000000 300.125 311.3125 319.75 330.875 338.3125 346.875 364.4375 362.125 371.1875 393.125 405.9375 403.8125 398 377.375 364.4375 361.125 401.0625 459.625 476.5 459 421.375 416.0625 394.5 394.8125 434.3125 513.25 522.25 562.3125 557.5 525.375 539.75 557.375 531.4375 495.1875 490.625 484.1875 479.4375 480.125 534.75 556.1875 588.4375 594.75 537.5 488.375 470.125 466.8125 476.375 492 514.125 581.5625 615.8125 672.0625 694.8125 690.25 712.5 721.625 729.0625 734.0625 736.75 739.25 744.375 751.9375 758.25 767.1875 777.1875 774.125 787.5625 789.4375 786.25 789.875 767.75 781.5 794.4375 814.875
304.187500000000000 312 326.3125 341.5625 352.3125 380.625 418.8125 391.625 379.4375 387 397.125 402.0625 394.3125 373.0625 359.5 362.1875 415.3125 474.8125 509.5625 496.125 451.125 476.0625 466.4375 445.6875 418.4375 399.9375 407.125 428.0625 503.8125 515.75 492.125 540.1875 533.0625 518.875 516.625 480.5 461.5 452.6875 498.875 561.0625 545.125 561.8125 564.75 501.0625 471.875 471.8125 482.125 522.4375 522.75 517.4375 560.4375 600.8125 650.125 695.125 703.375 709.5 710.9375 719.125 722.5625 728.3125 735.5 737.3125 736.125 748.375 755.6875 758.5625 766.6875 771.375 769.9375 777.9375 771.0625 760.0625 775.5625 800.625 817.9375
311.500000000000000 311.1875 349.6875 352.8125 393.25 466.625 401.375 367.5625 371.1875 379.0625 392.75 394.375 382.6875 356.3125 376.6875 413.0625 448.6875 494.5625 533.1875 509.5 472.5625 504.75 490.9375 446.1875 463.625 449.5625 430 407.6875 446.75 454.875 466.875 497.0625 501.625 474.0625 488.5 440 461.25 506.125 490.5 500.25 478.8125 487.3125 480.375 485.25 509.8125 518.625 521.5 524.125 572.625 567.125 538.3125 533.9375 578.5625 622.125 634.75 668.5 676.5625 708.8125 718 721.4375 720.375 705.25 722.4375 733.6875 745.1875 752.9375 753 757.6875 756.8125 752.9375 752.1875 752.1875 774.4375 794.25 810.4375
311.812500000000000 330.125 360.125 364.375 455.6875 437.9375 366.6875 345.0625 353.875 365.875 379.4375 394.9375 374.4375 385.25 432 431.0625 470.5 513.625 546.375 488.625 535.4375 531.75 487.375 476.375 499.125 475.625 510 479.625 437.5 419.3125 415.1875 420.75 428.9375 432.75 464 494.875 524.5625 601.375 586.3125 588.875 631.625 612.6875 610.625 611.375 607.75 586.8125 593 566.625 537.125 582.0625 608.875 584.8125 561.25 560 584.8125 640.4375 693.5 680.875 675.4375 699.6875 693.375 699.9375 710.9375 724 735.1875 743.75 754.875 744.5 734.1875 731.875 736.1875 747 765.875 787 793.3125
320.750000000000000 365.0625 365.8125 377.3125 460.9375 419.8125 368.75 334.375 343.5625 351.5 418.375 431.3125 388.625 399.25 417.6875 434.6875 428.0625 523.5 536.5625 555.75 551.4375 512.1875 493.5 521 555 526.8125 617.6875 622.75 546.5625 460.5625 479.4375 454.875 456.5 540.9375 577.5625 607 608.625 649.25 655.125 613.4375 665.1875 687.5 672.625 684 672.9375 649.1875 646.5 654.0625 622.5625 571.875 614.25 642.4375 612.4375 609.25 600.1875 596.0625 603 621.375 671 663.75 664.1875 695.5 702.6875 727.8125 726.0625 731.5 730.5625 719.8125 719 725.8125 732.3125 753.4375 773.375 760.6875 761.125
425.125000000000000 439.6875 396.3125 367.6875 394.875 425.0625 422.875 386.9375 381.8125 386.625 435.6875 453.3125 495.4375 468.0625 520.1875 545.5 495.5625 558.4375 568.375 609.4375 568.8125 594.75 567.625 559.5 592.375 542.5625 583.25 659.375 606.4375 514.375 532.75 516.5 590.5625 626.4375 655.5625 708.1875 713.25 687.375 683.25 639.375 688.0625 740.875 724.375 767.8125 724.5 690.5 681.625 700.5625 672.25 643.3125 620.1875 649.9375 661.5625 642.75 634.0625 639.3125 654.75 673.875 693.4375 703.5625 693.25 692.375 706.625 710.25 713.75 711.3125 709.9375 705 709.25 717.6875 745.125 758.375 753.75 749.5 785.25
510.062500000000000 469.75 465.0625 432.125 432.125 466.625 456.8125 462.25 461.875 538.8125 464.1875 508 594.9375 576.875 593.3125 650 572.0625 604.8125 616.625 640.375 613.1875 656.4375 657.75 646 654.1875 600.25 636.75 634.375 681.5 605.0625 618.75 608.25 636.5625 658.6875 694.5625 735.75 777.6875 716.9375 683.5 661.1875 745 831.5 756.9375 750.4375 731.9375 714.5625 722.6875 717.75 697.9375 689.4375 664 649.25 661.4375 664.5 673.8125 695.1875 671.125 654.6875 679.25 688.25 693.8125 695.9375 691.8125 703.3125 703.5625 710.625 716.375 713.5625 712.625 730.25 740.9375 743.1875 733.3125 754.875 773.1875
625.187500000000000 671.3125 663.875 542.6875 493.125 493 501.75 522.375 497.375 607.5625 529.8125 531.6875 640.3125 686.8125 689.6875 693.5 604.6875 651.6875 662.6875 667.75 682.625 657.6875 704.3125 734.5 712.5 665.3125 703.25 691.75 696.125 671.5 635.625 660.3125 676.875 708.125 728.5 741.3125 767.625 741.5 713.0625 683.5 715.625 766.5 777.5625 751.5 725.625 728.5 747.0625 735.75 719.1875 715.9375 732.25 699.5 660.875 683.375 687.4375 664.6875 640.375 645.0625 653.9375 674.0625 696.625 700.75 690.0625 687.9375 689.6875 697.6875 714.4375 707.875 716.75 722.1875 731.4375 722.6875 734.375 741.5625 754.5625
626.062500000000000 552.4375 667.3125 767.5625 623.8125 547.4375 548.875 554.625 574.6875 572.5 564.1875 589.5625 675 791.125 850.5 724.5 687 717.4375 703 726.375 723.25 690.1875 700.875 848.375 829.3125 717.5 746.4375 732.125 703.6875 724.625 667.5 707.6875 692.625 705.3125 748.8125 766.625 756.375 749.75 753.5625 724.1875 731.25 773.25 774.125 755.3125 748.625 758.8125 754.5 743.125 730.125 743.6875 819.6875 777.3125 727.1875 667.1875 700.9375 700.75 691.8125 674.4375 652.3125 698.4375 739.75 699.5625 684.875 674.5625 675.875 688.0625 691.9375 690 705.4375 712.6875 715.1875 719.5 734.0625 753.375 776.5
853.750000000000000 689.9375 623.3125 644.6875 788.4375 688.125 622.4375 600 598.375 585.25 573.25 551.1875 690.8125 827.6875 879.5625 807.8125 836.9375 809.6875 826.375 915.375 944.5625 820.5 701.25 833.375 945.625 795.25 790.0625 792.3125 767.9375 769.3125 713.0625 727.6875 739.0625 722 764.875 784.25 793.4375 803.25 791.5625 774.4375 772.1875 783.1875 796.625 778.8125 777.6875 767.75 755.5625 740.875 727.0625 745.625 778.125 701.5625 706.625 700.875 694.5625 702.3125 701.3125 698.8125 693.625 699.875 730.625 724.3125 672.3125 669.125 669.375 670 675.875 681 686.4375 693 706.0625 709 738.3125 779.125 807.375
920.750000000000000 1035.8125 785.1875 661.4375 687.6875 869.8125 878.3125 677.25 642.125 613.125 619.1875 572 623.875 884.75 996.625 774.6875 884.8125 938 949.8125 1050.9375 938.75 866.5 792.5 1024.9375 937.1875 920.9375 967.0625 954.6875 1067.8125 841.4375 770.9375 759.875 746.6875 761.4375 794.75 842.1875 881.5 912.4375 953.25 907.6875 855.8125 851.25 870.25 869.5625 843.1875 829.5625 843.3125 814.4375 748.75 741.9375 717.4375 703 708.1875 698.5625 692 703.0625 703.1875 703.125 712.75 691.875 695.5625 691.4375 664.5625 662.0625 663.0625 666.75 671.5 676.25 686.25 696.375 692.5 699.6875 728.5 765.0625 811.1875
801.750000000000000 992.9375 1088 886.3125 663.9375 655.6875 856.5625 943.625 727.0625 667.125 650.5 593.75 617.5625 671.3125 834.6875 1019.4375 932 884.25 843.4375 940.75 906.6875 886.6875 898.6875 1097.5 1013.9375 850.5625 978.9375 1180.5 1132.1875 900.5625 880.625 838.4375 807.125 815.6875 830.5 944.1875 1044.625 1077.1875 1097.0625 1029.6875 1028.4375 1022.75 989 997.0625 881.25 824.8125 755.3125 726.6875 735.25 767.6875 736.375 713.4375 706.1875 696.375 696.75 698.9375 698.4375 692.6875 710.5625 697.625 679.875 680.875 669.3125 656.6875 658.625 662.9375 667.125 670.875 677.5625 681.125 681.75 699.375 708.1875 730.4375 756.0625
868.875000000000000 759.5625 849.875 1053.0625 928 734.3125 586.25 695.875 818.375 676.5625 636.625 616.0625 632.25 659.4375 711.5625 674.4375 751.125 950.375 894.0625 878.0625 931.125 826.3125 987.1875 1214.0625 1118.625 849.0625 701 813.875 1048.625 1149.9375 1144.8125 1055.9375 1035 994.0625 1016.9375 914.1875 816.5 821.25 819.375 833.875 844.3125 831.625 805.6875 782.625 761.3125 738.125 724.125 712 726.375 731.0625 718.9375 713.9375 710.6875 710.8125 705.125 697.25 699.5 693.1875 702.3125 694.5 670.375 655.1875 657.6875 655.1875 658.9375 664.375 666.25 668.3125 675.3125 675.9375 675.375 690.0625 688.625 700 722.1875
1059.500000000000000 845.75 863.75 911.0625 768.75 773 707.625 544.125 591 756.1875 727.625 663.875 652.75 594.875 571.9375 593.375 618.125 616.4375 616.0625 643.4375 671.75 727.0625 775.4375 891.875 854.6875 771.875 682.6875 746.3125 849 877.8125 859.25 880.75 944.375 954.5625 968.5625 823.875 760.3125 787.9375 836.375 862.4375 897.375 918.8125 935.6875 862.0625 807.5625 762.3125 737 726.5625 726.8125 726.4375 721.1875 723.375 747.125 712.4375 704.5625 700.1875 696.4375 691 691.375 687.75 670.875 657.1875 652.875 656.6875 655.1875 657.375 662.1875 674.75 684.5625 682.75 675.0625 682.6875 686.375 689.8125 697.6875
1204.125000000000000 897.75 803.5 662.8125 679.3125 661 629.4375 625 547.25 550.1875 603.875 618.0625 539.3125 494.6875 564.5625 608.75 591.5 569.5625 561.3125 614 651.5 685.3125 725.125 782.0625 756 679.25 771.4375 767 771.5625 760.3125 758.3125 762.8125 765.375 762.75 734.875 721.6875 779.1875 957.25 1098.0625 1085.9375 1135.125 1149 1048 995.9375 971.4375 920.4375 865.375 798.4375 798.3125 778.5625 784.5 787.5625 754.9375 715.5625 706.375 694.75 687.0625 688.3125 688.75 691.125 668.875 650.5 646.3125 649.8125 663.8125 679.625 682.5 690.6875 709.5 709.25 689.9375 676 679.75 677.5625 683
841.937500000000000 832 640.3125 588.25 560.1875 506.8125 494.4375 544.5625 616.8125 516.6875 516.375 581.1875 525.6875 475.25 513.0625 538.25 519.1875 533.6875 575.125 603.4375 624.25 658.25 654.625 733.4375 723.5 695 752.9375 865.5 867.6875 832.9375 825 737.25 698.375 691.8125 689.5 689.5 709 765.75 879.5625 947.0625 1001.75 999.875 1026.6875 961.5 921.4375 899.6875 859.875 801.9375 789.125 861.375 827.6875 796.875 749 731.5625 729.125 710.4375 692.5625 678.0625 681.3125 689.6875 656.8125 642.625 641.25 649.3125 652.75 660.0625 676.6875 707.75 742.5625 733.625 697.25 665.25 664.9375 663.625 672
682.750000000000000 727 638.25 584.125 535.0625 527.125 429.375 482.9375 572.5 573.9375 484.875 489.25 470.625 496.5 453.375 479.5 472.5 507 522.1875 556.6875 587.5625 590.0625 595.125 641.875 685.75 723.4375 839.25 923.5625 940.375 954 964.375 844.5625 758.375 692.8125 663.5 671.25 706.0625 740.5625 750.0625 779.6875 815.6875 882.9375 946.9375 1020.25 987.0625 919.5 882.1875 788.5625 782.1875 787.4375 783.875 783.0625 778.5 791 772.3125 740.0625 705.9375 683.9375 670.75 663.6875 653.75 640.6875 635.125 638.5625 642.5625 641.875 663.5625 677.4375 699.0625 702.75 674.9375 658.25 656.25 658.625 668.0625
548.062500000000000 604.4375 646.625 576.3125 481.5625 521 425.25 430.1875 519.4375 535.6875 475.8125 420.4375 468.6875 449.6875 491 478.5 483.0625 483.75 524.75 556.8125 581.125 607.1875 633.5 727.6875 765.4375 767.4375 806.875 827.8125 790.125 862 918.125 891.3125 914.1875 796.625 717.375 877.9375 904.375 956.375 954.5 936.9375 870.9375 852.1875 882.75 944.0625 929.8125 895.75 816.1875 802.375 816.3125 812.4375 809.3125 846.375 964.5 906.25 886.875 801.375 729.4375 695.1875 672.5 665.5625 657.25 649.5 637.125 632.8125 637.1875 639 652.75 656 656.75 653.8125 649.375 646.375 647 652 658.5
462.187500000000000 556.75 610.6875 558.5625 475.9375 421.3125 399.4375 389.0625 438.3125 505.4375 448.1875 410.5 529.5 508.9375 464.75 443 463.75 498.625 524.625 546.3125 556.8125 579.1875 609.5625 630.9375 696.875 781.75 787.9375 748 705 674.75 687.5625 712 727.875 677.375 664.9375 814.9375 887.8125 898.0625 942.6875 881.3125 915.875 841.8125 848.4375 902.625 843.1875 824.5 811.75 888.625 884.5625 845.75 891 956.3125 971.0625 971.5625 969.625 841.125 758.625 697.9375 703.6875 733.3125 705.6875 649.625 627.625 628.9375 628.6875 630.375 635.625 639.4375 640.0625 640.4375 641.1875 643.8125 647.25 650.75 654.9375
516.500000000000000 570.5 557.8125 529.125 492.125 424.375 386 378.1875 417.875 474.75 429.4375 402 521.25 645.25 586.4375 565.9375 498.375 587.1875 557.8125 562.1875 568.375 603.1875 621.125 648.3125 640.375 638.6875 646.25 677.8125 741.9375 682.375 627.125 621.125 613.6875 616 620.6875 653.1875 726.1875 806.6875 881 867.8125 863.5625 805.375 786.1875 845.25 771.6875 838.5625 790.1875 856.25 927.4375 860.875 819.4375 857.875 914.5 1015.1875 932 854.3125 744.0625 671.5625 654.6875 692.875 648.125 628.6875 626.25 627.8125 628.375 629.3125 631.3125 633.75 636.8125 639 641.1875 644.4375 647 650.0625 655.25
480.833343505858977 522.166687011719 479.166656494141 449.416656494141 465.083343505859 438.833343505859 392.25 393.166656494141 431.75 433.666656494141 392.666656494141 420 508.666656494141 630.25 648.583312988281 695.583312988281 521.833312988281 526.333312988281 561.583312988281 634.083312988281 672.666687011719 658.666687011719 633.333312988281 584.083312988281 580.166687011719 623.583312988281 637.333312988281 635 632.166687011719 619.416687011719 608.583312988281 602.25 600.833312988281 614.333312988281 611.666687011719 632.5 692.416687011719 832.666687011719 773.083312988281 843.333312988281 878.333312988281 789.666687011719 799.416687011719 744.166687011719 717 820.5 779.833312988281 937.5 828.166687011719 826.25 805 875 944.666687011719 930.666687011719 776.166687011719 708.416687011719 652.916687011719 638.583312988281 638.916687011719 627.25 623.666687011719 629.916687011719 629.833312988281 635.833312988281 638 639.583312988281 643.333312988281 641.166687011719 641.916687011719 642.5 643.25 646.75 650.75 653.916687011719 657.416687011719
